-0.134478	-0.0320815	4.78826	
-0.187407	1.63305	4.30704	
-0.133945	-0.00923177	4.78583	
-0.139893	0.338453	4.75633	
-0.125464	-0.536695	4.83217	
-0.114577	-1.10838	4.49869	
-0.132925	0.00147762	4.78939	
-0.124498	-0.490872	4.84507	
-0.113322	-1.88758	4.23882	
-0.14621	0.680224	4.77257	
-0.14621	0.680224	4.77257	
-0.139326	0.447556	4.69993	
-0.144638	0.65443	4.77289	
-0.107713	-1.28669	4.46319	
-0.111832	-2.00133	4.26536	
-0.144676	0.747699	4.75038	
-0.107933	-1.813	4.28262	
-0.122868	-0.134027	4.81883	
-0.12255	-0.0950031	4.81359	
-0.128298	0.202041	4.76022	
-0.114477	-0.528908	4.84376	
-0.177443	1.75374	4.37141	
-0.101323	-1.15288	4.4693	
-0.108741	-0.629745	4.73565	
-0.108741	-0.629745	4.73565	
-0.119861	0.0301409	4.77114	
-0.101591	-0.961631	4.54753	
-0.10497	-2.02884	4.28022	
-0.0990094	-1.50228	4.43412	
-0.109491	-0.434317	4.86956	
-0.100491	-1.93177	4.25642	
-0.110669	-0.209446	4.79304	
-0.109538	-0.230567	4.79604	
-0.0998806	-1.97679	4.27421	
-0.0975699	-0.907519	4.56671	
-0.0963149	-0.926457	4.54444	
-0.112528	-0.00836338	4.78882	
-0.0925074	-1.46463	4.36855	
-0.102861	-0.534349	4.85629	
-0.0926653	-0.928078	4.5546	
-0.117955	0.430935	4.71704	
-0.0917071	-1.88736	4.25792	
-0.120444	0.631539	4.77806	
-0.0815508	-1.02745	4.52225	
-0.100711	0.138235	4.78416	
-0.079463	-1.13824	4.50021	
-0.150891	1.59719	4.29486	
-0.0801167	-1.65891	4.37105	
-0.0801167	-1.65891	4.37105	
-0.0916348	-0.132585	4.82775	
-0.0863533	-0.430219	4.88	
-0.0782409	-0.83912	4.59695	
-0.0755418	-1.74209	4.31615	
-0.0723335	-1.13186	4.5231	
-0.106442	0.801815	4.78461	
-0.0879728	0.0963856	4.79078	
-0.0828901	-0.104414	4.8415	
-0.0806551	-0.167705	4.82751	
-0.0767198	-0.430098	4.87632	
-0.0717443	-1.94563	4.29481	
-0.0859921	0.185282	4.81628	
-0.0674536	-0.916733	4.59205	
-0.0668147	-0.866775	4.60003	
-0.0740447	-0.403331	4.87752	
-0.0668728	-0.827213	4.61865	
-0.0853024	0.236075	4.79349	
-0.0667051	-0.760358	4.63676	
-0.0667051	-0.760358	4.63676	
-0.0837334	0.207951	4.823	
-0.0774582	-0.0423177	4.80294	
-0.0821695	0.19597	4.81574	
-0.0798225	0.131088	4.80767	
-0.0800105	0.144538	4.81444	
-0.0935965	0.724863	4.7526	
-0.0590328	-1.1151	4.53142	
-0.058535	-1.13508	4.51324	
-0.0599094	-1.83342	4.30205	
-0.0584067	-0.873099	4.61528	
-0.0582434	-0.848575	4.62183	
-0.0581191	-1.75243	4.33033	
-0.0718997	0.0365596	4.80789	
-0.0600049	-1.92383	4.30556	
-0.0866911	0.684585	4.79706	
-0.0737729	0.200139	4.83043	
-0.0734874	0.214631	4.83064	
-0.0617748	-0.400222	4.87283	
-0.0686328	0.0895185	4.82967	
-0.0533599	-1.70656	4.37262	
-0.0503271	-1.19811	4.43861	
-0.0528853	-0.820322	4.63272	
-0.051906	-0.878954	4.61401	
-0.0521737	-1.74072	4.35071	
-0.0515368	-0.773121	4.63079	
-0.0508928	-1.76868	4.32366	
-0.0459478	-1.13326	4.52409	
-0.0436409	-0.884831	4.61439	
-0.0647949	0.370113	4.80032	
-0.0754958	0.770007	4.80217	
-0.0473795	-1.94458	4.31352	
-0.045782	-1.86446	4.32796	
-0.0396195	-1.17607	4.41966	
-0.0697938	0.647322	4.81342	
-0.0413005	-0.890085	4.60629	
-0.0694164	0.670023	4.82347	
-0.0470451	-0.295609	4.8891	
-0.0386487	-1.0763	4.53639	
-0.0544894	0.207488	4.85808	
-0.0360211	-0.881199	4.61688	
-0.0503785	0.185473	4.86904	
-0.0346819	-0.749116	4.66933	
-0.0650865	0.800173	4.80054	
-0.0402516	-0.282762	4.87845	
-0.0288076	-1.22171	4.43245	
-0.03827	-0.211267	4.88425	
-0.0435015	0.0706802	4.86098	
-0.0398932	-0.120021	4.85794	
-0.0307879	-0.771814	4.64509	
-0.0287502	-0.88942	4.60991	
-0.041913	0.116674	4.87375	
-0.0471397	0.324282	4.8244	
-0.0258819	-1.46539	4.37788	
-0.0376241	0.0987675	4.88067	
-0.0226275	-1.26204	4.45186	
-0.030283	-0.225915	4.88001	
-0.030283	-0.225915	4.88001	
-0.024967	-1.75193	4.36277	
-0.0291418	-0.27417	4.88778	
-0.0423488	0.368774	4.80624	
-0.0493842	0.694753	4.84794	
-0.0348547	0.133825	4.89705	
-0.0358174	0.194322	4.88138	
-0.0359311	0.205416	4.87732	
-0.0504736	0.763394	4.83256	
-0.035656	0.212433	4.87097	
-0.0220308	-1.72213	4.40403	
-0.0181131	-1.16663	4.45421	
-0.0264371	-0.213835	4.89807	
-0.0256919	-0.254322	4.89157	
-0.0311265	0.108486	4.88424	
-0.0164413	-1.29846	4.41667	
-0.0262825	-0.118086	4.8737	
-0.0290898	0.0413932	4.86163	
-0.0241721	-0.196551	4.88633	
-0.01884	-0.502912	4.77523	
-0.0331783	0.319965	4.85506	
-0.015172	-0.780173	4.63656	
-0.0154	-0.680968	4.69523	
-0.0253698	0.103294	4.89403	
-0.0215291	-0.107231	4.85992	
-0.0339554	0.457929	4.81035	
-0.0289005	0.305511	4.8431	
-0.0289005	0.305511	4.8431	
-0.0175415	-0.215141	4.8878	
-0.0100792	-1.47077	4.39374	
-0.0100792	-1.47077	4.39374	
-0.0360139	0.662188	4.8531	
-0.0109032	-0.662173	4.69649	
-0.0207614	0.137204	4.91384	
-0.0085528	-0.725775	4.66265	
-0.00617783	-1.29771	4.42735	
-0.00567943	-1.08072	4.49151	
-0.0113882	-0.21682	4.89378	
-0.0078651	-0.236879	4.89625	
-0.00622452	-0.222986	4.89969	
-0.00387386	-0.402691	4.80613	
-0.00598345	-0.169557	4.89405	
-0.0108499	0.101691	4.89225	
-0.0113055	0.137539	4.88743	
-0.000322908	-0.465767	4.78953	
-0.00896544	0.133971	4.90822	
0.00174849	-1.70323	4.44898	
-0.00634815	0.0547487	4.88613	
-0.0229371	0.744777	4.84958	
-0.0179261	0.670809	4.89398	
0.00161768	-0.221803	4.90819	
-0.00806307	0.294011	4.87381	
0.00763104	-1.46707	4.40253	
0.00278371	-0.16648	4.9057	
-0.00311786	0.170608	4.90174	
-0.0165444	0.79696	4.86136	
-0.0165444	0.79696	4.86136	
-0.015045	0.723108	4.84317	
-0.0149434	0.78889	4.87749	
0.00439502	0.0610998	4.89002	
0.00439502	0.0610998	4.89002	
0.013996	-1.4425	4.40709	
0.00705529	-0.0766391	4.88542	
0.0156309	-1.39992	4.45083	
0.00114651	0.285	4.88473	
0.00714015	0.144401	4.90701	
0.0115497	-0.0304882	4.89721	
0.018827	-1.49654	4.41343	
0.0151399	-1.91228	4.46168	
-0.0499943	1.54697	4.31861	
0.0092511	0.309777	4.90058	
-0.013433	1.02202	4.74281	
0.0183339	-0.0879501	4.88959	
0.0235296	-1.59594	4.42146	
0.0246366	-1.69506	4.47084	
0.0173779	0.160913	4.91212	
0.00548961	0.659189	4.8839	
0.0286914	-1.30348	4.44725	
0.0209828	0.0866256	4.89616	
0.029987	-1.46009	4.448	
0.0278145	-0.164046	4.921	
-0.00558492	1.04748	4.72784	
0.0317119	-1.4205	4.42969	
0.012544	0.558434	4.86202	
0.0226439	0.239027	4.91396	
0.0219224	0.270602	4.91559	
0.0350317	-1.28789	4.45989	
0.0366313	-1.22076	4.48767	
0.0366313	-1.22076	4.48767	
0.0389102	-1.19137	4.4569	
0.0360416	-0.157944	4.93124	
0.0135933	0.799415	4.88653	
0.024441	0.437593	4.90082	
0.0424393	-1.12516	4.53106	
0.0342288	0.12893	4.93069	
0.0368576	0.195528	4.93133	
0.0331258	0.38019	4.89394	
0.0462812	-0.209118	4.95838	
0.0383344	0.341866	4.92059	
0.0517375	-1.50255	4.45212	
0.0450282	0.225216	4.92883	
0.0321828	0.765171	4.88133	
0.0476735	0.167069	4.93146	
0.0537502	-1.55717	4.44085	
0.0385622	0.593926	4.88668	
0.0549588	-1.58993	4.44817	
0.0498798	0.217721	4.95034	
-0.0139219	1.61623	4.34947	
0.0514401	0.288094	4.95687	
0.0479076	0.405767	4.90477	
0.0553588	0.108815	4.90925	
0.0674415	-0.315661	5.06187	
0.0659168	-1.10256	4.61135	
0.0441444	0.739715	4.90113	
0.0441444	0.739715	4.90113	
0.0648957	-1.46829	4.47257	
0.0501966	0.573703	4.94777	
0.0732504	-0.756203	4.78006	
0.0721108	-1.06749	4.6158	
-0.00144527	2.02361	4.62392	
0.0688763	0.0777637	4.92666	
0.0673529	0.339225	4.9742	
0.0744174	-1.61563	4.4738	
0.0744174	-1.61563	4.4738	
0.0643364	0.432015	4.91672	
0.0778256	0.0223899	4.93201	
0.0888433	-0.863269	4.83653	
0.0914957	-0.493847	5.01766	
0.0914725	-0.993927	4.77597	
0.01287	1.57512	4.33596	
0.093038	-0.942479	4.80652	
0.094409	-0.44943	5.02284	
0.0913288	-0.150004	5.03355	
0.0863033	-1.5132	4.48145	
0.0911487	-1.00872	4.67659	
0.0834268	0.183201	4.94389	
0.0990468	-0.695148	5.02284	
0.0983035	-0.30689	5.09866	
0.0960419	-0.803494	4.81125	
0.0886382	-0.0414896	4.91212	
0.0966585	-0.982904	4.77521	
0.0862209	0.202309	4.95844	
0.10075	-0.322407	5.11234	
0.0978718	-0.779735	4.81608	
0.101232	-0.520247	5.00378	
0.099603	-0.97087	4.80121	
0.100547	-1.00579	4.77028	
0.0827516	0.569117	4.97623	
0.0937731	0.0260715	4.9193	
0.0795592	0.723254	4.94159	
0.0228371	1.85105	4.52498	
0.104324	-0.929614	4.83906	
0.0944141	-1.77868	4.56111	
0.0943584	0.142108	4.93436	
0.10779	-0.302662	5.1023	
0.0882484	0.507972	4.94812	
0.106913	-0.778665	4.83318	
0.0965754	0.220284	4.95868	
0.108711	-0.899071	4.8505	
0.108539	-0.202251	5.05888	
0.112816	-0.397749	5.10654	
0.0677462	1.11696	4.74286	
0.114693	-0.573139	5.02642	
0.115917	-0.32831	5.12906	
0.112288	-1.00261	4.77877	
0.116908	-0.406265	5.10965	
0.118742	-0.604686	5.02539	
0.119752	-0.420449	5.11626	
0.118648	-0.505117	5.0512	
0.103453	0.249099	4.96259	
0.101927	0.345775	4.96764	
0.116427	-0.975145	4.82521	
0.0917498	0.771399	4.95456	
0.098749	0.582398	5.00439	
0.114258	-1.38419	4.70664	
0.119366	-0.2243	5.11658	
0.104832	0.393697	5.00241	
0.117776	-0.803562	4.82417	
0.121983	-0.303707	5.12036	
0.121983	-0.303707	5.12036	
0.124106	-0.43486	5.10153	
0.125028	-0.356851	5.14968	
0.119346	-0.879374	4.74295	
0.121725	-0.789278	4.83917	
0.103936	0.660399	5.02631	
0.103936	0.660399	5.02631	
0.105549	0.603382	5.00858	
0.124421	-0.959237	4.84157	
0.105355	0.71914	5.03597	
0.0426163	1.6067	4.37083	
0.12372	-1.22439	4.70533	
0.132674	-0.319191	5.14644	
0.125317	-1.37933	4.71577	
0.13437	-0.400169	5.11638	
0.134488	-0.513435	5.06676	
0.135149	-0.568779	5.05633	
0.112276	0.692863	5.031	
0.118411	0.337142	4.97446	
0.132193	-0.163536	5.08278	
0.134574	-0.243627	5.11324	
0.137934	-0.415583	5.1059	
0.139008	-0.50217	5.08768	
0.133484	-0.144574	5.05975	
0.134986	-0.793671	4.84773	
0.135173	-1.02242	4.81257	
0.129798	-1.38204	4.6237	
0.129798	-1.38204	4.6237	
0.136757	-0.772107	4.89583	
0.116016	0.392328	4.77102	
0.14204	-0.470793	5.09851	
0.116931	0.7182	5.00572	
0.0541152	1.5373	4.33218	
0.140672	-0.742891	4.93666	
0.121882	0.687302	5.04479	
0.14417	-0.228556	5.13224	
0.131151	-1.79199	4.61497	
0.141769	-1.00355	4.82475	
0.139485	-1.34736	4.73044	
0.132652	-1.66551	4.57706	
0.145082	-0.168523	5.10923	
0.148622	-0.29747	5.14537	
0.141878	-1.22022	4.73747	
0.150799	-0.273547	5.15109	
0.145492	-1.19276	4.77427	
0.127456	0.712764	5.00526	
0.152846	-0.480988	5.09258	
0.153987	-0.415075	5.12019	
0.136226	0.360841	4.99392	
0.138349	0.302556	4.99388	
0.153933	-0.2326	5.13677	
0.157794	-0.274987	5.1519	
0.145137	0.100542	4.97863	
0.158634	-0.534287	5.06378	
0.15981	-0.638314	5.04894	
0.160441	-0.393876	5.12885	
0.138441	0.546744	4.97982	
0.11164	1.17597	4.73449	
0.16672	-0.400621	5.13356	
0.151263	0.333132	4.99003	
0.155317	0.121016	4.98952	
0.148465	0.620793	5.04997	
0.171344	-0.318017	5.16946	
0.171234	-0.297767	5.16819	
0.172936	-0.469931	5.1223	
0.163395	-1.23884	4.73494	
0.173011	-0.22111	5.16301	
0.167113	-0.801413	4.87376	
0.167113	-0.801413	4.87376	
0.170085	-0.747769	4.95575	
0.174708	-0.492957	5.11925	
0.174274	-0.654442	5.05385	
0.169646	-0.996828	4.86577	
0.17705	-0.444722	5.13521	
0.159324	-1.79453	4.64811	
0.171626	-0.7809	4.91143	
0.159566	-1.81733	4.63479	
0.159712	0.351403	4.99694	
0.165498	-0.00912088	4.9501	
0.171306	-1.12626	4.79549	
0.178064	-0.136662	5.09719	
0.178846	-0.94631	4.89747	
0.179374	-0.923346	4.90268	
0.179968	-0.76109	4.94514	
0.188337	-0.307145	5.18121	
0.181716	-0.974528	4.88123	
0.189448	-0.405512	5.15513	
0.168401	-1.84463	4.62829	
0.190302	-0.487078	5.13545	
0.189002	-0.210104	5.17699	
0.184933	-0.842395	4.94697	
0.190552	-0.297268	5.17125	
0.142508	1.07119	4.79964	
0.192891	-0.587712	5.09115	
0.192509	-0.666746	5.05602	
0.188903	-0.864652	4.93302	
0.195913	-0.376022	5.1677	
0.19624	-0.275696	5.19158	
0.173222	0.5107	4.98161	
0.197544	-0.628765	5.0957	
0.197505	-0.606725	5.0909	
0.178934	0.322912	5.00623	
0.190912	-1.05146	4.87139	
0.193898	-0.0818552	5.12686	
0.200727	-0.486682	5.13711	
0.202376	-0.414132	5.15656	
0.202071	-0.633841	5.09913	
0.198134	-0.757055	4.97886	
0.181086	0.714229	5.07291	
0.182835	0.671689	5.073	
0.206635	-0.307246	5.1882	
0.20708	-0.290985	5.18688	
0.20763	-0.537625	5.11721	
0.203148	-0.917297	4.93557	
0.204365	-0.787748	4.95598	
0.210701	-0.242128	5.19488	
0.203893	-1.0114	4.90791	
0.211012	-0.596452	5.10648	
0.205708	-0.806317	4.92524	
0.192739	0.623721	5.06788	
0.217095	-0.368801	5.1861	
0.216257	-0.252579	5.19499	
0.218829	-0.212878	5.20505	
0.208846	0.137106	5.08226	
0.201327	0.320193	5.0119	
0.121576	1.5781	4.37584	
0.121576	1.5781	4.37584	
0.121576	1.5781	4.37584	
0.203911	0.348172	5.02835	
0.216023	-0.835846	4.91706	
0.219258	-0.144271	5.11275	
0.222173	-0.171144	5.15475	
0.206555	0.405229	5.04062	
0.205439	0.488623	5.02083	
0.22333	-0.0943336	5.13762	
0.229249	-0.511066	5.14682	
0.218529	0.439274	5.22619	
0.218997	-1.08974	4.84839	
0.231075	-0.349444	5.19955	
0.230831	-0.244155	5.20667	
0.228617	-0.180865	5.17549	
0.22401	-0.96662	4.93401	
0.20987	-1.82682	4.7002	
0.223876	-0.994052	4.90015	
0.22955	-0.0713304	5.16036	
0.235235	-0.50381	5.15241	
0.230267	-0.764843	5.01094	
0.230267	-0.764843	5.01094	
0.177417	1.18586	4.76487	
0.238552	-0.31378	5.22372	
0.23646	-0.556449	5.13282	
0.231842	-0.141259	5.13533	
0.227207	-1.09658	4.85878	
0.217057	0.472074	5.04491	
0.2348	-0.0822207	5.15841	
0.228788	0.122015	5.11478	
0.234892	-0.871187	4.97025	
0.138817	1.75401	4.45174	
0.243152	-0.518224	5.16447	
0.23373	-1.08469	4.91224	
0.234435	-0.985608	4.92581	
0.227139	-0.03844	4.94155	
0.244571	-0.451781	5.18304	
0.244233	-0.596937	5.14298	
0.244233	-0.596937	5.14298	
0.219553	0.672222	5.04435	
0.240438	-0.11813	5.15104	
0.223675	0.300013	5.00013	
0.247581	-0.325253	5.22149	
0.223004	0.604691	5.07143	
0.227358	-1.29421	4.70903	
0.227358	-1.29421	4.70903	
0.238255	-0.952634	4.93155	
0.240401	-0.919592	4.95849	
0.250434	-0.491839	5.18948	
0.253102	-0.510146	5.16804	
0.228421	0.619396	5.07274	
0.253659	-0.228831	5.23062	
0.253659	-0.228831	5.23062	
0.153191	1.86254	4.5502	
0.232152	0.586825	5.06345	
0.240644	-1.27906	4.78546	
0.24916	-1.04298	4.92041	
0.259255	-0.576453	5.15305	
0.25485	-0.0987342	5.1702	
0.260231	-0.548134	5.15948	
0.257585	-0.0858795	5.17999	
0.257585	-0.0858795	5.17999	
0.257987	-0.152389	5.16522	
0.254002	-0.946721	4.96338	
0.255104	-0.885493	4.98518	
0.238495	0.486763	5.04407	
0.263502	-0.257917	5.22998	
0.264921	-0.326224	5.22864	
0.264921	-0.326224	5.22864	
0.252473	0.120799	5.13778	
0.255659	-0.986296	4.95774	
0.258717	-0.761966	5.03161	
0.266059	-0.44178	5.20382	
0.26664	-0.240575	5.23481	
0.267418	-0.488612	5.19038	
0.244268	0.466413	5.04495	
0.269948	-0.51706	5.16711	
0.27263	-0.374151	5.22137	
0.257926	-1.2663	4.84145	
0.272786	-0.208307	5.22155	
0.268704	-0.126874	5.16433	
0.267271	-0.792364	5.00354	
0.276031	-0.577564	5.15427	
0.254572	0.47394	5.06732	
0.265239	-1.11455	4.88459	
0.266095	-1.25364	4.88051	
0.273185	-0.0275502	5.17104	
0.273185	-0.0275502	5.17104	
0.271646	0.095974	5.13565	
0.25814	-1.84159	4.74899	
0.277143	-0.788278	5.01261	
0.28542	-0.603665	5.15738	
0.287323	-0.589705	5.16037	
0.281354	-0.781517	5.03131	
0.290966	-0.289229	5.24783	
0.264602	0.479525	5.04477	
0.281563	0.140168	5.19592	
0.289557	-0.568004	5.16456	
0.266472	-1.73776	4.74447	
0.189062	-0.0256149	2.46614	
0.289912	-0.780143	5.03624	
0.276491	0.307782	5.06067	
0.283589	-1.29193	4.83684	
0.292024	0.0707773	5.14975	
0.275931	0.524023	5.02921	
0.305933	-0.297812	5.2464	
0.29543	-0.835587	4.99	
0.298264	-0.789863	5.0342	
0.298264	-0.789863	5.0342	
0.304921	-0.565608	5.15963	
0.27701	0.730324	5.07669	
0.284371	0.426228	5.07974	
0.284371	0.426228	5.07974	
0.310123	-0.390199	5.23527	
0.288133	0.300058	5.07141	
0.311142	-0.350159	5.24791	
0.285839	0.464926	5.06574	
0.285839	0.464926	5.06574	
0.304393	0.146426	5.22025	
0.302927	-0.916174	5.00962	
0.199161	1.55929	4.39805	
0.304487	0.0667137	5.16189	
0.316175	-0.403172	5.23461	
0.294972	0.340446	5.09038	
0.314522	-0.214162	5.22667	
0.287995	-1.85235	4.77416	
0.294232	0.319159	5.05637	
0.315122	-0.726384	5.09922	
0.320663	-0.477484	5.19849	
0.316961	-0.12235	5.19601	
0.321526	-0.456582	5.20385	
0.305614	-1.26931	4.89841	
0.317059	-0.707782	5.09801	
0.317043	0.157382	5.24979	
0.316099	-0.083156	5.18354	
0.312659	0.10853	5.17526	
0.292428	0.703722	5.06321	
0.32047	-0.580521	5.15475	
0.213663	1.81417	4.51778	
0.213663	1.81417	4.51778	
0.321808	-0.658285	5.12805	
0.320852	-0.730456	5.08992	
0.307622	0.311361	5.07014	
0.319501	0.113703	5.19878	
0.330625	-0.298423	5.23063	
0.316408	-1.25358	4.92624	
0.324873	-0.0267232	5.1843	
0.326214	0.127283	5.22515	
0.332537	-0.246576	5.2202	
0.324708	0.0554674	5.16289	
0.218882	1.66966	4.43301	
0.218882	1.66966	4.43301	
0.337109	-0.306873	5.21979	
0.332711	0.107103	5.21783	
0.332656	-0.0300887	5.18846	
0.235875	1.96621	4.66338	
0.342007	-0.445075	5.21322	
0.337721	-0.164115	5.19817	
0.33487	-0.919433	5.03952	
0.335861	0.09814	5.20571	
0.321864	0.429746	5.09284	
0.339401	-1.0571	5.00615	
0.346684	-0.178292	5.20183	
0.347112	-0.21588	5.19857	
0.32351	-1.85433	4.81724	
0.336835	0.338785	5.12663	
0.351013	-0.186149	5.19111	
0.353022	-0.169615	5.19694	
0.252989	1.92435	4.62435	
0.331696	0.720795	5.07646	
0.32654	0.812185	5.06358	
0.361039	0.0707651	5.20385	
0.362421	0.16139	5.23209	
0.364175	-0.197193	5.18449	
0.346566	0.474446	5.0936	
0.252975	1.78448	4.50183	
0.36863	-0.220451	5.18975	
0.36863	-0.220451	5.18975	
0.364774	0.05025	5.18975	
0.370531	0.114779	5.24333	
0.37444	-0.244746	5.20468	
0.373349	-0.140801	5.17463	
0.373409	0.0385907	5.19588	
0.377674	0.0849234	5.20828	
0.377806	0.0621116	5.19173	
0.382355	0.179115	5.25908	
0.361656	-1.3424	4.83222	
0.371861	0.30271	5.15345	
0.371861	0.30271	5.15345	
0.373714	0.381375	5.17461	
0.381732	-0.0808957	5.16735	
0.378345	0.342488	5.17344	
0.392539	0.209643	5.2403	
0.390998	-0.11961	5.16497	
0.382824	0.320527	5.1529	
0.379979	-1.20277	4.8996	
0.282832	1.82664	4.54979	
0.37052	-1.6513	4.79324	
0.396827	0.224712	5.2245	
0.396827	0.224712	5.2245	
0.403806	-0.194995	5.20248	
0.395085	0.326136	5.16952	
0.406813	-0.0551948	5.17857	
0.392811	-1.18746	4.89582	
0.411247	-0.0232415	5.1606	
0.418931	0.091617	5.21755	
0.423704	0.156824	5.2767	
0.421477	0.619626	5.33025	
0.425196	-0.192957	5.22322	
0.4011	-1.34709	4.83583	
0.42216	0.4083	5.25826	
0.42216	0.4083	5.25826	
0.321474	1.9726	4.67858	
0.429909	0.169258	5.26363	
0.428682	-0.02036	5.1965	
0.416098	-1.12599	4.93277	
0.357893	1.29402	4.78897	
0.428447	-0.034007	5.17628	
0.42413	0.33362	5.19693	
0.413613	-1.45533	4.8795	
0.415426	-1.21644	4.89139	
0.43637	0.121536	5.25827	
0.429699	0.305438	5.20085	
0.438301	-0.0968585	5.22614	
0.438097	-0.431414	5.16452	
0.438126	-0.112904	5.1933	
0.443176	0.0899269	5.22695	
0.448526	-0.148227	5.2425	
0.441547	0.360034	5.22801	
0.43913	0.4794	5.23953	
0.429878	-1.2007	4.91532	
0.446377	0.391393	5.26586	
0.446832	0.213628	5.22838	
0.431316	-1.33365	4.912	
0.452753	0.149068	5.26055	
0.375066	1.3361	4.77871	
0.457718	0.14208	5.26836	
0.463395	-0.164097	5.26432	
0.457659	0.181412	5.25235	
0.333736	1.57812	4.45249	
0.472209	0.610228	5.34287	
0.46621	0.359462	5.23865	
0.491129	-0.646161	5.30473	
0.481919	0.569985	5.35228	
0.506204	-0.305436	5.43947	
0.480678	0.367755	5.25419	
0.405499	1.30504	4.79053	
0.644367	-0.90424	8.32789	
0.513636	-0.67963	5.39943	
0.506435	-0.722201	5.31897	
0.49212	0.638863	5.35867	
0.507668	-0.997532	5.30908	
0.510613	-0.87597	5.34357	
0.497067	0.458056	5.33891	
0.490662	0.318864	5.23269	
0.490662	0.318864	5.23269	
0.50192	0.489919	5.33872	
0.505001	0.629095	5.36829	
0.39422	1.98301	4.74126	
0.481545	0.76223	5.14907	
0.530015	-0.850776	5.3858	
0.521137	-1.08925	5.27234	
0.532885	-0.577576	5.41605	
0.507829	0.366752	5.29184	
0.537687	-0.501099	5.45601	
0.537341	-0.628061	5.4613	
0.542483	-0.404788	5.49557	
0.508472	0.348404	5.26502	
0.540996	-0.549898	5.45461	
0.532779	-0.938729	5.35427	
0.528511	-1.06579	5.28611	
0.546342	-0.443368	5.47821	
0.511998	0.292002	5.23876	
0.512634	0.328206	5.25279	
0.55615	-0.410524	5.52511	
0.525824	0.643215	5.37261	
0.55016	-0.674853	5.41493	
0.52397	0.352166	5.28723	
0.545452	-0.900338	5.35128	
0.541616	-0.987532	5.30455	
0.442519	1.35448	4.79427	
0.541719	0.233949	5.3468	
0.565205	-0.608923	5.45396	
0.568296	-0.476528	5.48605	
0.571952	-0.445623	5.51778	
0.572467	-0.248097	5.53017	
0.561917	-1.02717	5.32698	
0.576194	-0.524761	5.48138	
0.577838	-0.586578	5.46368	
0.589068	0.0601489	5.61727	
0.549113	0.612046	5.35312	
0.567008	0.252045	5.42534	
0.583773	-0.792132	5.46737	
0.41785	1.57055	4.50077	
0.555968	0.583546	5.35879	
0.594193	-0.341443	5.55287	
0.597663	-0.346699	5.57905	
0.579694	-1.04081	5.35885	
0.597755	-0.460061	5.52724	
0.567296	0.560545	5.35502	
0.588936	-1.36636	5.38081	
0.58433	-1.11451	5.32877	
0.611117	-0.405952	5.56403	
0.578968	0.366123	5.34481	
0.592783	-1.22682	5.32056	
0.591154	-1.31002	5.30059	
0.607723	-0.857605	5.44788	
0.617176	-0.21213	5.56057	
0.583796	0.636172	5.35506	
0.61151	-0.874984	5.41808	
0.586307	0.654251	5.3607	
0.608539	-1.03676	5.37519	
0.589949	0.484002	5.35676	
0.606372	-1.06545	5.34748	
0.594984	0.41007	5.35944	
0.60603	0.284976	5.40922	
0.631449	-0.231121	5.55207	
0.626045	-0.716739	5.47283	
0.631815	-0.837979	5.50257	
0.602504	0.477427	5.35942	
0.640179	-0.46101	5.54796	
0.615466	-0.883358	5.31487	
0.633778	-0.857161	5.4713	
0.64474	-0.248459	5.5785	
0.615373	0.363539	5.36693	
0.628562	-1.15632	5.35343	
0.628562	-1.15632	5.35343	
0.66101	-0.0165887	5.67213	
0.619927	0.339564	5.38796	
0.611342	0.661501	5.3538	
0.612527	0.64102	5.36055	
0.641867	-0.104572	5.49571	
0.474816	1.6337	4.55831	
0.653559	-0.536132	5.53317	
0.653559	-0.536132	5.53317	
0.658705	0.10125	5.62216	
0.656122	0.127477	5.591	
0.643651	-1.02388	5.40821	
0.646612	-1.07655	5.40504	
0.653901	-0.88497	5.46939	
0.671955	-0.0765316	5.65954	
0.658295	-0.679218	5.50761	
0.633117	0.425587	5.41975	
0.660575	-0.654343	5.51363	
0.672328	-0.159191	5.63153	
0.668568	0.192366	5.52814	
0.67638	-0.87492	5.50271	
0.689902	0.0705266	5.65411	
0.664623	-1.20118	5.37591	
0.645651	0.52871	5.36134	
0.677389	-0.98319	5.44946	
0.699544	-0.501427	5.61618	
0.700506	-0.464989	5.62368	
0.695667	-0.571384	5.56867	
0.679526	-1.05085	5.42654	
0.663086	0.412001	5.4028	
0.687493	0.162048	5.54157	
0.698248	-0.627962	5.55641	
0.707716	-0.418158	5.62821	
0.703288	-0.535631	5.58161	
0.528842	1.83974	4.68361	
0.719636	-0.0586843	5.67556	
0.719636	-0.0586843	5.67556	
0.700041	-1.01303	5.46584	
0.703853	-0.884598	5.49073	
1.22881	-2.36004	9.51781	
0.723103	-0.165353	5.64365	
0.730179	-0.104348	5.68872	
0.721976	-0.232178	5.61466	
0.703468	-1.17526	5.43153	
0.680304	0.69541	5.39986	
0.681553	0.702426	5.3955	
0.720618	0.158583	5.59893	
0.721939	-0.862422	5.54113	
0.711268	-1.06523	5.45609	
0.686226	0.602856	5.391	
0.713333	-1.15686	5.43804	
0.750042	0.0228077	5.70087	
1.309	-1.27625	9.75476	
0.750534	-0.116897	5.68084	
0.566521	2.01336	4.76277	
0.561635	1.87157	4.70642	
0.75902	0.0548549	5.69663	
0.551809	1.62819	4.56857	
0.764943	-0.0614126	5.694	
0.766719	-0.367889	5.63883	
0.775352	-0.410548	5.66756	
0.771576	0.165916	5.62537	
0.782605	-0.00184359	5.66903	
0.77141	-0.958271	5.53923	
0.787262	-0.154081	5.67852	
0.679703	1.1556	5.11462	
0.78784	-0.118072	5.6635	
0.805103	-0.0715656	5.6921	
0.598767	1.673	4.60943	
0.825511	-0.388702	5.71523	
0.789782	-1.43455	5.4401	
0.80733	-0.905361	5.54434	
0.827776	-0.184599	5.67574	
0.833781	0.449519	5.72651	
0.845697	-0.052691	5.74251	
0.832342	0.16896	5.66989	
0.834006	0.122222	5.66447	
0.819176	-1.35712	5.49396	
0.83999	0.098357	5.65906	
0.852397	-0.153432	5.71764	
0.8469	0.235172	5.69943	
0.85194	0.462779	5.74263	
0.854508	0.144827	5.69902	
0.870706	-0.323786	5.75269	
0.833988	-1.48088	5.46628	
0.833988	-1.48088	5.46628	
0.667081	1.96786	4.78513	
0.870807	0.42976	5.74061	
0.870807	0.42976	5.74061	
0.870301	0.173787	5.69363	
0.870301	0.173787	5.69363	
0.642709	1.57701	4.56002	
0.88102	0.215152	5.71169	
0.880952	0.0931014	5.68761	
0.884688	0.518672	5.74242	
0.673519	1.76977	4.66846	
0.673519	1.76977	4.66846	
0.908019	-0.240829	5.73935	
0.912759	0.292834	5.7148	
0.912759	0.292834	5.7148	
0.909109	-1.02851	5.63155	
0.908932	-1.0897	5.62387	
0.688189	1.64483	4.63493	
0.924518	-0.661599	5.71699	
0.926865	-0.730677	5.70246	
0.924384	0.416623	5.74695	
0.917575	0.548961	5.70998	
0.915778	-1.13843	5.60598	
0.932706	-1.1157	5.64822	
0.926214	-1.21011	5.60723	
0.945494	-0.909343	5.72282	
0.922979	-1.42127	5.56052	
0.935075	-1.30045	5.60787	
0.961431	-0.57445	5.76722	
0.961431	-0.57445	5.76722	
0.958461	-0.634519	5.74709	
0.958461	-0.634519	5.74709	
0.961558	-0.880548	5.74154	
0.950218	0.213414	5.72155	
0.961564	-0.780413	5.73424	
0.961198	-0.689678	5.7302	
0.964825	0.104512	5.78418	
0.949534	0.545571	5.70867	
0.731895	1.79962	4.70388	
0.976909	-0.71561	5.76228	
0.98665	-0.420611	5.81983	
0.98455	-0.490413	5.80202	
0.958412	-1.2559	5.63652	
0.958412	-1.2559	5.63652	
0.958412	-1.2559	5.63652	
0.970843	-0.92813	5.70873	
0.726699	1.57845	4.61208	
0.996179	-0.105205	5.83374	
0.996179	-0.105205	5.83374	
0.178434	-0.12374	1.02298	
1.77917	-1.89752	10.3029	
1.00151	-0.54704	5.83621	
1.00151	-0.54704	5.83621	
0.975389	0.419547	5.73581	
0.75233	1.86633	4.74188	
0.970638	0.543793	5.71653	
0.996674	-0.669241	5.7826	
0.996201	-0.811368	5.7686	
0.979048	0.346056	5.72896	
1.00172	-0.608245	5.80242	
1.01919	-0.367956	5.89747	
0.999861	-0.759332	5.7647	
0.987873	-1.40129	5.68517	
1.00144	-0.713446	5.76479	
1.02086	-0.191998	5.85819	
0.993712	0.305515	5.73054	
0.985182	0.537245	5.68762	
0.76966	1.80548	4.71085	
1.00452	-1.28649	5.65581	
0.998787	0.468145	5.69365	
1.03222	-0.577916	5.81466	
1.01155	-1.34891	5.68722	
1.00357	0.515339	5.71263	
1.00733	0.377968	5.71844	
1.03824	-0.695419	5.79607	
1.03824	-0.695419	5.79607	
1.03164	-1.16232	5.75149	
1.01641	0.290861	5.72509	
0.777828	1.7573	4.68442	
0.776067	1.59977	4.64414	
1.02292	0.399305	5.73065	
1.01821	0.509475	5.70686	
1.03928	-1.26837	5.70802	
0.788352	1.55362	4.64246	
1.06007	0.00577186	5.83944	
0.813432	1.89586	4.79555	
1.07314	-0.232189	5.88576	
1.0826	-0.457437	5.91513	
1.04872	0.380073	5.77554	
1.04749	0.36602	5.76512	
1.07755	-0.62006	5.86873	
1.06958	-1.08142	5.81497	
1.05019	0.392876	5.76884	
1.07798	-0.669558	5.85127	
1.04726	0.351885	5.73274	
1.08155	-0.879686	5.83695	
1.05006	0.451913	5.73541	
1.03107	0.620909	5.64327	
1.04477	0.604781	5.70682	
1.04738	0.52323	5.69754	
1.05558	0.459107	5.72788	
1.08084	0.146139	5.83242	
1.05469	0.471153	5.71096	
1.05508	0.58263	5.71707	
1.07889	-1.33293	5.75709	
1.11028	-0.180468	5.91156	
1.12183	-0.423594	5.95191	
1.10651	-1.03355	5.83488	
1.09207	-1.47463	5.75318	
1.09207	-1.47463	5.75318	
0.836563	1.68074	4.69562	
0.836563	1.68074	4.69562	
1.07705	0.517067	5.68016	
1.14569	-0.395302	5.96403	
1.12934	-0.978823	5.86258	
1.15	0.249379	5.98613	
1.14218	-0.25532	5.88483	
1.11399	0.637315	5.77762	
1.17237	0.211831	5.98203	
1.15493	-0.0853287	5.87515	
1.18679	-0.425459	5.9933	
0.872065	1.55122	4.68315	
1.17219	-0.213135	5.90867	
1.17219	-0.213135	5.90867	
0.885774	1.73865	4.73475	
0.885774	1.73865	4.73475	
1.18619	-0.24083	5.92993	
1.19175	-0.616792	5.9442	
1.07579	0.81319	5.46715	
1.19095	-0.709113	5.92832	
1.12287	0.661607	5.67085	
1.18463	-0.952959	5.86561	
1.18463	-0.952959	5.86561	
1.20669	-0.245474	5.92656	
1.22905	0.325417	6.02455	
0.948452	1.89287	4.85459	
1.2118	-1.55994	5.7949	
0.941228	1.66682	4.75261	
1.26088	-1.10959	5.92848	
1.18978	0.532892	5.65293	
1.27909	0.218262	6.02174	
1.25953	-1.03569	5.87442	
0.961934	1.61221	4.75004	
1.20237	0.676576	5.65223	
1.21327	0.635569	5.67983	
1.31279	-0.586993	6.04093	
1.29466	-1.00314	5.945	
1.29344	-0.900701	5.93641	
1.31522	-0.638121	6.02465	
1.24588	0.177337	5.72449	
1.31566	0.162273	6.03502	
1.32684	-0.335495	6.0542	
1.32002	0.212373	6.03896	
1.32002	0.212373	6.03896	
1.31619	-1.28336	5.94362	
1.32559	-1.11574	5.94423	
1.32931	-1.37774	5.95005	
1.35073	-1.29381	6.01016	
1.32366	-1.50505	5.88254	
1.39163	-0.450748	6.12235	
1.39163	-0.450748	6.12235	
1.2828	0.574877	5.69959	
1.37546	-1.18571	6.00201	
1.39052	-0.105705	6.06018	
1.40404	-0.769988	6.076	
1.30629	0.598659	5.69188	
1.40941	-1.30239	6.03648	
1.40941	-1.30239	6.03648	
1.42539	0.170625	6.07441	
1.41271	-1.41587	5.98493	
1.42483	0.29138	6.06867	
1.44138	-1.23234	6.0982	
1.42989	0.278681	6.0657	
1.42857	0.22754	6.04196	
1.09449	1.63993	4.82656	
1.44026	-0.113643	6.06188	
1.44763	-1.2684	6.05441	
1.31528	0.692997	5.56304	
1.45621	-1.34131	6.04905	
1.48722	-0.932882	6.17134	
1.49076	-1.14759	6.12032	
1.49476	-0.7045	6.10364	
1.507	-1.25635	6.12463	
1.50711	-1.31788	6.10556	
1.48119	-0.167292	6.01565	
1.52733	-1.09056	6.16275	
1.51441	0.105427	6.10131	
1.49694	0.576711	6.00462	
1.50914	-0.586786	6.0018	
1.54847	-1.17239	6.13869	
1.56321	-1.05361	6.18755	
1.56662	-0.940172	6.20105	
1.53894	0.295779	6.08672	
1.54049	-0.111179	6.07025	
1.56448	-0.706387	6.14747	
1.26477	2.11486	5.17427	
1.19505	1.55324	4.88643	
1.54133	0.13775	6.06091	
1.23388	1.97125	5.04987	
1.55637	0.475611	6.09416	
1.2106	1.59322	4.90675	
1.56321	0.0351424	6.09178	
1.56044	0.0485069	6.07095	
1.55967	0.346756	6.07396	
1.57028	0.324755	6.0796	
1.56571	0.445391	6.05095	
1.59659	-0.211865	6.1402	
1.58613	-0.15942	6.09741	
1.57227	0.3722	6.06502	
1.41486	0.78397	5.49391	
1.33741	1.06075	5.23064	
1.57375	0.330606	6.02092	
1.26059	1.39559	4.96194	
1.26059	1.39559	4.96194	
1.41074	0.864028	5.44806	
1.61221	-0.0397622	6.08923	
1.59653	-0.00462256	6.01748	
1.46704	0.650793	5.5622	
1.62452	-0.102461	6.05895	
1.63693	0.430279	6.08265	
1.34206	2.21598	5.14297	
1.6441	0.206371	6.03909	
1.67076	0.482314	6.07425	
1.34989	1.78366	5.06096	
1.53487	0.819745	5.61681	
1.34675	1.63843	5.03525	
1.43128	1.18034	5.27579	
1.52074	0.888488	5.55873	
1.31684	2.3834	4.96245	
1.36411	1.56524	5.04556	
1.3681	1.73942	5.06134	
1.45152	1.0699	5.26829	
1.69105	0.456493	6.05542	
1.67387	0.378908	5.95078	
1.47978	1.24578	5.33781	
1.71779	0.555332	6.07585	
1.41253	2.26936	5.1128	
1.74793	0.0710843	6.05603	
1.81346	-0.123637	6.24457	
1.76923	0.176207	6.04085	
1.65049	1.12706	5.6694	
1.57777	1.23803	5.40917	
1.82009	0.553724	6.11407	
1.88005	-1.11769	6.17628	
1.86255	0.06772	6.10501	
1.61032	1.76432	5.32377	
1.87058	0.54345	6.0507	
1.9517	0.380627	6.27671	
1.92862	0.00878501	6.17778	
1.75633	1.13032	5.6934	
1.94461	0.0947866	6.20317	
1.90035	0.602215	6.08281	
1.92177	1.11786	5.98063	
1.94523	0.778024	5.97614	
1.96838	1.10892	5.98792	
1.98535	1.61573	5.90732	
2.06125	0.875749	6.02043	
2.1289	1.53363	6.17506	
2.10019	1.15236	6.06235	
2.21405	1.52724	6.17019	
2.25692	1.53045	6.20141	
2.28911	1.28939	6.16935	
2.32122	1.16757	6.19814	
2.31583	1.12084	6.14755	
2.23858	2.31493	5.41598	
8.49676	-5.06837	17.4565	
3.11076	2.34104	5.7797	
12.3217	-6.82598	21.8966	
12.3217	-6.82598	21.8966	
15.0412	-8.94862	26.3896	
-2.64644	1.18198	3.87776	
-2.53241	1.55115	3.94124	
-1.92256	1.76876	3.90559	
-1.77352	0.641852	3.81441	
-1.71184	1.78477	3.89802	
-1.74005	0.935307	3.98686	
-1.72443	0.948203	4.00283	
-1.64007	0.526122	3.81874	
-1.7084	0.957788	3.99316	
-1.60464	0.167501	3.87381	
-1.58794	0.0964124	3.83472	
-1.49711	-0.235357	3.67826	
-1.6622	1.10887	4.08726	
-1.53247	-0.0157366	3.79555	
-1.56369	0.304891	3.9109	
-1.52176	-0.0436934	3.80973	
-1.51759	0.676388	3.88434	
-1.51452	0.325629	3.91439	
-1.49248	0.195531	3.86639	
-1.45716	-0.0391528	3.82519	
-1.49003	0.922045	3.91474	
-1.42193	-0.242976	3.74142	
-1.48843	0.190324	3.95391	
-1.32817	-0.664676	3.5407	
-1.46854	0.153181	3.92531	
-1.43453	0.36374	3.91359	
-1.26932	-0.815114	3.48718	
-1.42329	0.0539411	3.92802	
-1.42739	0.112832	3.96322	
-1.26853	-0.726277	3.54499	
-1.25216	-0.756268	3.52316	
-1.36073	0.687991	3.84754	
-1.24078	-0.559942	3.52804	
-1.40683	0.235002	4.01715	
-1.35764	-0.0235178	3.92462	
-1.35764	-0.0235178	3.92462	
-1.38111	0.280102	4.02647	
-1.35792	0.0995748	3.96545	
-1.2712	-0.577437	3.73608	
-1.37329	0.252834	4.03798	
-1.28509	1.1106	3.80376	
-1.25529	-0.608031	3.73472	
-1.22041	-0.648278	3.66613	
-1.17314	-0.820205	3.54069	
-1.16792	-0.827472	3.52531	
-1.22538	0.86245	3.70929	
-1.21273	-0.557451	3.71213	
-1.25956	-0.292627	3.89267	
-1.25733	-0.140961	3.92379	
-1.19637	-0.57956	3.74336	
-1.29318	0.197219	4.04979	
-1.28005	0.193212	4.05844	
-1.2949	0.102327	4.10948	
-1.24044	-0.0496111	4.00671	
-1.17061	-0.535504	3.81123	
-1.13915	0.98798	3.70936	
-1.22504	-0.0870059	3.99431	
-1.27384	0.399486	4.17838	
-1.2136	-0.213737	4.002	
-1.21162	-0.180984	4.01105	
-1.24772	0.0826739	4.14019	
-1.1677	-0.402136	3.901	
-1.09831	-0.728221	3.68799	
-1.09831	-0.728221	3.68799	
-1.09831	-0.728221	3.68799	
-1.23509	0.11681	4.15926	
-1.24805	0.3549	4.20443	
-1.18858	-0.245184	4.00731	
-1.19321	-0.226212	4.02646	
-1.22916	0.0985402	4.14959	
-1.19313	0.485732	4.02878	
-1.16145	-0.34761	3.92337	
-1.16797	-0.269552	3.99045	
-1.1538	-0.358183	3.95201	
-1.21495	0.0935531	4.16673	
-1.12668	-0.493058	3.86795	
-1.16773	-0.318366	4.00928	
-1.0854	-0.665775	3.72921	
-1.1221	-0.587863	3.8897	
-0.576153	-0.211229	2.00783	
-1.06785	-0.737595	3.72625	
-1.11141	-0.481461	3.89832	
-1.19828	0.140872	4.20584	
-1.15259	-0.211407	4.06977	
-1.19019	0.051399	4.23514	
-1.13813	0.515685	4.05056	
-1.01315	1.14791	3.61083	
-1.00524	1.0049	3.59037	
-1.11274	0.438265	3.99393	
-1.07016	-0.567039	3.8523	
-1.06954	-0.535654	3.8921	
-1.13173	-0.223445	4.13294	
-1.07914	-0.481786	3.95962	
-1.06864	-0.501144	3.93143	
-1.09095	-0.292971	4.06443	
-1.06098	-0.51512	3.96933	
-1.12945	0.253896	4.25299	
-1.04635	0.601488	3.98805	
-1.07881	-0.262292	4.11287	
-1.07881	-0.262292	4.11287	
-1.08127	-0.199094	4.12331	
-1.08788	-0.0441775	4.17051	
-1.0689	-0.236784	4.10592	
-1.09249	0.233421	4.24153	
-1.03162	0.421007	4.02977	
-1.08781	0.0955782	4.29872	
-1.06797	0.0148443	4.27036	
-1.00757	-0.3927	4.08086	
-0.985045	0.556881	3.9949	
-0.918223	-0.830429	3.7659	
-1.01865	-0.0544153	4.21525	
-1.0058	-0.315853	4.1755	
-1.0316	0.267592	4.28516	
-1.04715	0.0433023	4.36002	
-1.04103	0.169193	4.35131	
-1.04103	0.169193	4.35131	
-1.00123	-0.246055	4.18559	
-0.960254	0.620575	4.05004	
-0.898897	-0.806695	3.80858	
-1.01245	0.29363	4.29048	
-1.02286	0.0706288	4.34315	
-0.965215	-0.397217	4.10184	
-0.597619	0.0185001	2.54129	
-0.941773	0.483472	4.03672	
-1.02108	0.151114	4.39208	
-1.02545	0.117071	4.41428	
-0.871504	-0.854805	3.76159	
-0.943728	-0.461382	4.08675	
-0.960206	-0.300879	4.21109	
-0.87785	-0.788675	3.85113	
-0.87785	-0.788675	3.85113	
-0.87785	-0.788675	3.85113	
-0.923508	-0.440861	4.10746	
-0.89894	-0.528843	4.00296	
-0.890796	-0.595376	4.00408	
-0.855157	-0.817971	3.84531	
-0.912136	-0.439736	4.12182	
-0.861964	-0.645127	3.90968	
-0.905015	-0.46402	4.12474	
-0.912369	-0.384392	4.17592	
-0.908461	-0.240932	4.22753	
-0.860988	-0.593796	4.01296	
-0.913014	0.471577	4.26526	
-0.871958	-0.495709	4.11521	
-0.878247	-0.44274	4.15662	
-0.878247	-0.44274	4.15662	
-0.861422	-0.56618	4.0826	
-0.884261	-0.379127	4.20792	
-0.912082	-0.243596	4.34798	
-0.919351	0.405621	4.39087	
-0.907793	-0.0737765	4.36911	
-0.711456	-1.1478	3.48499	
-0.818958	-0.631735	4.02894	
-0.869451	-0.154022	4.32401	
-0.678824	1.20462	3.5057	
-0.858196	0.453816	4.49923	
-0.788724	0.637108	4.16975	
-0.788244	-0.0597394	4.19678	
-0.703476	-0.798005	3.74914	
-0.746027	-0.618922	3.99033	
-0.770628	-0.236485	4.13191	
-0.755172	0.72837	4.06253	
-0.656498	-1.23334	3.54351	
-0.793359	0.067801	4.29179	
-0.835595	0.423649	4.52459	
-0.693492	1.76235	3.76018	
-0.834558	0.360753	4.55775	
-0.781755	0.0447686	4.27554	
-0.742729	0.675171	4.07818	
-0.76975	-0.0653257	4.22703	
-0.77899	0.0823411	4.28085	
-0.774503	0.573947	4.31517	
-0.75845	-0.0449028	4.23851	
-0.752951	0.00950028	4.28864	
-0.794633	0.442212	4.52897	
-0.745958	0.0799913	4.25733	
-0.736267	0.0523728	4.25433	
-0.723642	-0.131504	4.23655	
-0.719675	-0.388019	4.23451	
-0.732239	0.0221676	4.30904	
-0.717766	-0.397568	4.25593	
-0.689268	0.704321	4.09517	
-0.764539	0.345466	4.56653	
-0.718334	-0.00705555	4.29632	
-0.716754	-0.002856	4.31491	
-0.697266	-0.441281	4.24943	
-0.712876	-0.230278	4.3887	
-0.666484	0.667274	4.12983	
-0.686209	-0.388337	4.30163	
-0.64655	-0.720872	4.06944	
-0.682105	0.115343	4.29545	
-0.680805	0.121494	4.29712	
-0.681024	-0.374725	4.31355	
-0.652861	0.642512	4.14256	
-0.587588	-1.10596	3.72935	
-0.660877	0.587842	4.19747	
-0.669356	0.142535	4.28063	
-0.645948	0.662772	4.15281	
-0.65297	0.599037	4.20773	
-0.638914	0.724936	4.11839	
-0.641303	0.376563	4.14638	
-0.665211	0.128811	4.30847	
-0.665138	0.133917	4.32555	
-0.646416	0.501014	4.20425	
-0.552433	-1.28669	3.60325	
-0.643793	0.6187	4.21428	
-0.65661	0.128996	4.32245	
-0.610397	-0.793369	4.0209	
-0.664669	-0.287387	4.39705	
-0.664669	-0.287387	4.39705	
-0.639612	0.0411429	4.25906	
-0.643285	-0.481158	4.28582	
-0.611598	-0.729855	4.07498	
-0.649911	-0.0890603	4.34503	
-0.640661	0.256694	4.2873	
-0.66077	-0.194393	4.42794	
-0.647709	0.119367	4.34417	
-0.664008	-0.154829	4.45625	
-0.624297	-0.588716	4.23724	
-0.617062	-0.558279	4.19127	
-0.629784	-0.481122	4.27897	
-0.61792	0.171159	4.2205	
-0.643631	-0.30919	4.42894	
-0.626331	-0.0773936	4.31458	
-0.626349	0.084015	4.32539	
-0.53723	-1.16076	3.71276	
-0.581329	-0.798812	4.0188	
-0.6088	0.643317	4.22165	
-0.641984	-0.276887	4.45356	
-0.587598	-0.709417	4.10119	
-0.624243	-0.391692	4.35862	
-0.612332	0.0499671	4.2811	
-0.613394	0.282616	4.31149	
-0.607163	0.340788	4.28051	
-0.589384	0.467404	4.18533	
-0.605166	0.0637761	4.29792	
-0.592732	0.0322742	4.24819	
-0.612787	-0.374726	4.39495	
-0.602657	0.305649	4.33025	
-0.597091	0.1544	4.31309	
-0.575587	0.448057	4.16401	
-0.599285	0.316323	4.33805	
-0.585522	0.190595	4.25843	
-0.602409	-0.413802	4.39309	
-0.591418	0.326576	4.31837	
-0.589678	0.33336	4.30986	
-0.610716	-0.205135	4.4742	
-0.567997	-0.617192	4.16674	
-0.5858	0.330641	4.33253	
-0.604726	-0.195271	4.47703	
-0.57604	0.0457397	4.27849	
-0.574074	0.179565	4.27277	
-0.580871	-0.503692	4.33808	
-0.601285	-0.198823	4.49281	
-0.565513	0.0264887	4.22851	
-0.573794	0.240254	4.30157	
-0.570147	0.226633	4.2971	
-0.576861	-0.475087	4.35437	
-0.565389	0.043481	4.2722	
-0.578786	-0.331173	4.4729	
-0.582332	-0.302407	4.50181	
-0.535391	-0.0359745	4.19271	
-0.534396	-0.616461	4.20847	
-0.530225	-0.0316827	4.20581	
-0.519741	-0.651897	4.14141	
-0.531247	0.0951705	4.25001	
-0.455555	-1.3299	3.64676	
-0.527484	0.680008	4.25444	
-0.527779	0.52077	4.2647	
-0.526733	0.543168	4.26453	
-0.526733	0.543168	4.26453	
-0.517376	-0.0562959	4.19885	
-0.453863	-1.14316	3.7178	
-0.498696	-0.651715	4.1477	
-0.508798	0.187871	4.23369	
-0.509816	0.0843451	4.26352	
-0.503865	0.245183	4.26413	
-0.497145	0.549939	4.24984	
-0.497048	0.142187	4.26916	
-0.495434	0.244021	4.28583	
-0.485185	-0.353557	4.31751	
-0.473274	-0.105578	4.25645	
-0.477117	0.369339	4.2949	
-0.477396	0.231878	4.31081	
-0.474553	0.242498	4.29812	
-0.483684	-0.24173	4.39616	
-0.470307	0.325755	4.27724	
-0.479497	-0.263511	4.37225	
-0.470796	0.217459	4.30958	
-0.466884	0.319043	4.27508	
-0.468511	-0.370948	4.29258	
-0.466336	0.232735	4.30125	
-0.466069	0.223124	4.30034	
-0.475338	-0.220676	4.39932	
-0.462748	0.244217	4.30189	
-0.456661	0.644559	4.26624	
-0.456661	0.644559	4.26624	
-0.464835	-0.25357	4.38411	
-0.454834	0.0959284	4.29895	
-0.454834	0.0959284	4.29895	
-0.449568	0.367463	4.31779	
-0.446802	0.243941	4.29982	
-0.444779	0.368663	4.32573	
-0.440855	0.37229	4.33622	
-0.372662	-1.28909	3.72749	
-0.412558	-0.739057	4.15673	
-0.423052	0.357289	4.33461	
-0.417343	0.626717	4.2788	
-0.379814	-1.00648	3.89908	
-0.421504	0.350783	4.33117	
-0.41762	0.117082	4.33139	
-0.409821	0.619491	4.29547	
-0.398423	-0.701259	4.20473	
-0.336615	1.41443	3.56941	
-0.390702	-0.743322	4.18192	
-0.395769	-0.0204889	4.3126	
-0.403931	0.577889	4.42604	
-0.399437	0.592597	4.38551	
-0.311203	1.18178	3.45895	
-0.374054	-0.770027	4.18325	
-0.3294	-1.37847	3.68429	
-0.353834	-1.0392	3.98226	
-0.404557	-0.164955	4.57163	
-0.385185	0.076885	4.36238	
-0.404052	-0.14026	4.57801	
-0.365322	-0.796765	4.14713	
-0.389287	0.57286	4.42672	
-0.383338	0.608877	4.37819	
-0.387466	-0.514492	4.44026	
-0.37628	0.330302	4.33565	
-0.37628	0.330302	4.33565	
-0.378529	0.0715427	4.36529	
-0.399778	-0.25046	4.62085	
-0.384323	0.550274	4.45282	
-0.375063	0.639911	4.35899	
-0.382176	0.533101	4.45443	
-0.317745	-1.35525	3.71065	
-0.308997	-1.4384	3.64677	
-0.381032	-0.587547	4.50327	
-0.368442	0.132459	4.36139	
-0.365732	0.248485	4.34529	
-0.333855	-1.11995	3.97456	
-0.384022	-0.359411	4.58289	
-0.379541	-0.381005	4.57358	
-0.327827	-0.999718	4.00246	
-0.37055	-0.390048	4.56541	
-0.322542	-1.01042	3.99509	
-0.345239	0.258894	4.30849	
-0.345239	0.258894	4.30849	
-0.350371	0.0567024	4.37852	
-0.350371	0.0567024	4.37852	
-0.367915	-0.371338	4.60225	
-0.34673	0.163687	4.35767	
-0.346324	-0.0448786	4.35307	
-0.3176	-1.12827	3.99458	
-0.353808	0.537822	4.45323	
-0.368064	-0.288026	4.65219	
-0.355526	-0.603468	4.51735	
-0.341942	0.199476	4.36047	
-0.345719	0.404087	4.41323	
-0.347588	0.514535	4.45158	
-0.336006	0.171935	4.34391	
-0.33807	0.595957	4.38091	
-0.348328	-0.582787	4.5412	
-0.338143	-0.418616	4.46836	
-0.339095	-0.663455	4.51946	
-0.352635	-0.235171	4.70886	
-0.266966	-1.56597	3.57993	
-0.322779	0.656138	4.33864	
-0.319775	0.196656	4.3629	
-0.341545	-0.253356	4.67111	
-0.316486	0.446989	4.38655	
-0.304196	-0.831915	4.2229	
-0.336702	-0.182501	4.70058	
-0.311443	0.233646	4.39153	
-0.310865	0.551148	4.39573	
-0.306569	0.381159	4.36961	
-0.305162	0.559643	4.40649	
-0.310157	-0.409719	4.51385	
-0.315325	-0.175184	4.63735	
-0.313894	-0.169471	4.65187	
-0.311417	-0.214966	4.67413	
-0.308352	-0.275443	4.6425	
-0.291544	0.387379	4.39109	
-0.305654	-0.101069	4.62721	
-0.288844	0.230124	4.38398	
-0.288844	0.230124	4.38398	
-0.280094	0.390167	4.30852	
-0.24162	-1.40311	3.73355	
-0.284589	0.208378	4.40852	
-0.215499	1.33352	3.3464	
-0.279801	0.481987	4.37956	
-0.28548	0.112348	4.48388	
-0.292755	-0.205843	4.64179	
-0.282125	-0.590833	4.48886	
-0.279815	0.103101	4.47204	
-0.27258	0.524454	4.37242	
-0.286561	-0.0240151	4.60396	
-0.270462	0.482505	4.36736	
-0.262266	-0.839887	4.25476	
-0.283736	-0.281095	4.6285	
-0.277639	0.0362815	4.55177	
-0.280748	-0.256526	4.63195	
-0.256486	0.651901	4.34263	
-0.271195	-0.250535	4.63899	
-0.260632	-0.568417	4.46139	
-0.249885	0.551953	4.37594	
-0.249826	0.210229	4.4123	
-0.247937	0.330827	4.38644	
-0.248962	0.312629	4.41649	
-0.261679	-0.0811133	4.66561	
-0.258127	-0.102791	4.65797	
-0.247903	0.146892	4.47911	
-0.241638	0.545421	4.37185	
-0.236164	-0.833261	4.28263	
-0.249912	0.0785077	4.56759	
-0.255282	-0.120013	4.67484	
-0.247587	0.0734797	4.56976	
-0.220173	-1.17724	4.06878	
-0.247089	0.0684547	4.5758	
-0.237053	0.327119	4.40374	
-0.24035	-0.56217	4.46756	
-0.237982	0.175601	4.46267	
-0.201091	-1.39856	3.78303	
-0.244925	-0.0682776	4.63361	
-0.232976	0.221176	4.41563	
-0.238887	-0.344552	4.53564	
-0.231363	0.335203	4.39741	
-0.236803	-0.357627	4.5162	
-0.240246	0.0575088	4.61076	
-0.227651	0.530863	4.36921	
-0.239517	-0.118072	4.62919	
-0.235001	-0.316916	4.55782	
-0.224991	0.561595	4.37984	
-0.2333	0.0648392	4.60248	
-0.225546	0.18278	4.46723	
-0.233135	-0.156556	4.64872	
-0.221237	0.19203	4.4616	
-0.220509	0.164914	4.4663	
-0.220509	0.164914	4.4663	
-0.217085	-0.560015	4.4766	
-0.221293	-0.0660607	4.60297	
-0.177369	-1.49465	3.73114	
-0.211159	0.207096	4.45259	
-0.214548	-0.0883487	4.63885	
-0.201039	0.561627	4.38822	
-0.204953	-0.617382	4.47933	
-0.207183	-0.0963533	4.64335	
-0.203716	0.0722905	4.61775	
-0.203261	0.0534868	4.65492	
-0.202686	0.0521128	4.64556	
-0.1774	-1.2276	4.07933	
-0.168706	-1.37673	3.8829	
-0.195298	-0.0226951	4.62336	
-0.180609	-0.875093	4.30717	
-0.180609	-0.875093	4.30717	
-0.183371	0.184644	4.49023	
-0.17389	0.600449	4.30259	
-0.164814	-1.12782	4.15779	
-0.165376	0.666778	4.33754	
-0.171418	-0.267013	4.64594	
-0.140216	-1.42947	3.86569	
-0.159158	0.020724	4.64038	
-0.157305	-0.173299	4.71533	
-0.148716	0.184592	4.5145	
-0.127122	-1.49839	3.86714	
-0.149532	0.034138	4.64762	
-0.136979	0.646814	4.32299	
-0.153199	-0.534101	4.84499	
-0.14905	-0.0552629	4.7376	
-0.138195	0.0911333	4.51313	
-0.147717	-0.41154	4.85816	
-0.136697	0.170767	4.50292	
-0.0291611	-0.171396	0.966403	
-0.142712	-0.0686798	4.73967	
-0.131537	0.516484	4.38171	
-0.12077	0.621593	4.31443	
-0.12962	0.000107022	4.68766	
-0.117253	0.67455	4.34206	
-0.117965	-0.832078	4.41527	
-0.100031	-1.57383	3.76246	
-0.123235	-0.132063	4.75104	
-0.110539	-0.0415134	4.70366	
-0.113435	-0.506712	4.91436	
-0.104615	0.0364626	4.65903	
-0.103514	-0.0210626	4.66717	
-0.104548	-0.44945	4.94289	
-0.0833512	-1.16748	4.24283	
-0.0854656	0.699908	4.36263	
-0.0873005	-0.802319	4.45794	
-0.0862078	0.559758	4.41673	
-0.0842311	-0.898694	4.44443	
-0.0848706	-0.70589	4.52137	
-0.0798467	-1.02241	4.33537	
-0.0796867	0.590962	4.41067	
-0.0757082	-0.817958	4.47691	
-0.0742373	0.0740614	4.62669	
-0.0726552	0.114523	4.67317	
-0.0614056	0.575463	4.4311	
-0.0626699	-0.00221028	4.68273	
-0.0619002	0.156948	4.69126	
-0.0595265	0.0113786	4.69112	
-0.060255	-0.0785391	4.7536	
-0.0612082	-0.419078	4.85647	
-0.0502343	-0.739774	4.53551	
-0.0478237	0.0383023	4.72818	
-0.0407905	0.28073	4.56974	
-0.039211	0.586806	4.46534	
-0.0406875	0.117649	4.78068	
-0.0400773	0.166594	4.78038	
-0.040719	-0.27387	4.89009	
-0.0383176	0.175011	4.75741	
-0.0368384	-0.105195	4.8223	
-0.0345849	0.299154	4.57666	
-0.0312579	0.189678	4.72028	
-0.0292769	0.142351	4.78038	
-0.0254268	-0.661815	4.56035	
-0.0169825	-1.18443	4.11413	
-0.0181722	-0.168833	4.86369	
-0.0145219	-1.20682	4.11431	
-0.0141028	-0.666131	4.56139	
-0.0121499	0.592837	4.49316	
-0.0111991	-1.12207	4.18094	
-0.0130089	-0.164453	4.87877	
-0.00978265	-0.238562	4.90208	
-0.00777766	0.621778	4.47291	
-0.00472089	0.333216	4.55778	
-0.00383652	-0.649424	4.56131	
-0.00203514	0.354432	4.53992	
-0.00149331	0.115616	4.78755	
0.000705474	0.281304	4.67647	
0.00167159	0.632854	4.4637	
0.00353753	0.363324	4.55656	
0.0121234	0.11547	4.79365	
0.0127981	-1.18341	4.15026	
0.0187891	0.277716	4.72374	
0.0210539	-0.844943	4.48549	
0.0297712	-0.144783	4.92217	
0.0287031	0.262451	4.7283	
0.0344188	0.137392	4.81713	
0.0328909	0.637419	4.47968	
0.0419305	0.219661	4.77887	
0.0504654	-0.0717222	4.86448	
0.0530644	0.0565058	4.84692	
0.0611475	0.173331	4.78336	
0.0702963	-0.764873	4.72487	
0.0740605	0.10425	4.81363	
0.0786378	-0.00933718	4.82945	
0.08041	0.122038	4.80283	
0.081347	0.0258983	4.82007	
0.0819815	0.226595	4.83538	
0.0816356	0.316046	4.77457	
0.0820964	0.334155	4.77796	
0.0849385	0.0559757	4.79918	
0.0849385	0.0559757	4.79918	
0.0860928	0.531682	4.68526	
0.0917459	0.230983	4.81061	
0.092698	-0.807439	4.83681	
0.102462	-0.380113	5.33969	
0.102462	-0.380113	5.33969	
0.0934925	0.221815	4.82105	
0.0933973	0.132416	4.80236	
0.0952774	0.0354419	4.79664	
0.0997105	-0.65176	4.90954	
0.109063	-0.398186	5.33996	
0.108047	0.139242	4.80937	
0.108047	0.139242	4.80937	
0.119335	-0.584945	5.21735	
0.103143	-1.22781	4.49649	
0.111301	0.170348	4.83853	
0.115148	-0.0296467	4.72774	
0.121642	0.426849	4.67128	
0.125378	0.261826	4.80398	
0.132071	-0.888925	4.82866	
0.143918	-0.569011	5.25086	
0.143918	-0.569011	5.25086	
0.130464	0.4371	4.62107	
0.15547	-0.447045	5.35078	
0.142303	0.241696	4.77918	
0.142315	0.212243	4.73868	
0.142937	0.224227	4.74084	
0.162579	-0.570788	5.31764	
0.145502	0.670246	4.67116	
0.164526	-0.638083	5.19449	
0.151293	0.212358	4.75147	
0.152042	0.219966	4.75303	
0.174119	-0.229112	5.44278	
0.174561	-0.395227	5.42785	
0.162583	-0.80893	4.97039	
0.162583	-0.80893	4.97039	
0.175571	-0.374854	5.26937	
0.183441	-0.578293	5.30848	
0.184357	-0.532998	5.3309	
0.185548	-0.669968	5.21327	
0.174923	-0.914852	4.88257	
0.179331	-0.763145	4.9431	
0.177676	0.214097	4.74707	
0.207126	-0.203511	5.51066	
0.204778	-0.438937	5.43395	
0.132407	1.32779	3.4958	
0.2088	-0.461151	5.4384	
0.216927	-0.447656	5.50833	
0.196675	-0.764905	4.97827	
0.216927	-0.0832736	5.32331	
0.216558	-0.108953	5.27798	
0.228705	-0.296797	5.53334	
0.202859	0.586162	4.83421	
0.201726	0.372054	4.79329	
0.237579	-0.340987	5.5626	
0.213774	-0.918025	4.94997	
0.214	0.486366	4.77349	
0.230233	-0.868795	4.99833	
0.221975	0.475937	4.74586	
0.258149	-0.548028	5.45449	
0.273008	-0.290742	5.63544	
0.247048	-0.849314	5.05492	
0.254213	0.107781	5.18002	
0.246314	0.224343	4.8727	
0.273979	-0.0862621	5.38973	
0.248737	0.42132	4.89225	
0.284647	-0.467733	5.55516	
0.248562	0.430676	4.83617	
0.251913	0.307899	4.89531	
0.27664	-0.122096	5.35162	
0.190505	1.48977	3.66945	
0.267085	0.261183	4.90794	
0.315401	-0.276803	5.65603	
0.306768	-0.144686	5.42439	
0.316994	-0.0191596	5.37987	
0.323114	-0.0366209	5.41066	
0.325337	-0.108462	5.43606	
